# 3D point list with one line of data per point:
#   POINT3D_ID, X, Y, Z, R, G, B, ERROR, TRACK[] as (IMAGE_ID, POINT2D_IDX)
# Number of points: 376, mean track length: 4.714683517189675
3284 4.0242995394355727 1.3615066070012878 5.7801113653948635 71 19 0 1.0774692434534583 19 461 21 347 17 322 18 457 15 388 20 325 24 322
3283 4.0794669069299783 1.3428469454957883 5.7242901722150368 72 24 2 0.86723069437722244 15 389 17 321 16 374
3282 5.8970120056047604 0.7585859024444388 6.9561461861364124 85 43 17 1.6676502982983217 22 355 17 311 18 440 24 147
3281 3.7396467773952429 -1.5990981383887743 5.6217664925015178 106 67 48 2.0891157780537428 15 267 17 302 16 181 13 166 14 227 12 239 10 199 11 212 9 207
3280 4.2059655108531766 -1.4672463411500394 5.5613944678231633 71 30 9 1.9602579279242469 19 566 23 218 17 301
3279 3.8606785779786987 -0.11648184091686141 5.3661038805056513 61 18 0 0.70570127808056615 21 158 13 114
3278 5.9787923182238227 -0.70070458577907357 6.5877188819306598 199 185 174 2.1056629025914182 19 978 17 297 18 1025 16 225 16 948
3277 7.4557968933926224 8.027327312113524 11.499438931808708 190 183 177 1.1057430798674166 19 623 17 295 18 315 15 417 13 257
3276 6.2126879205130621 2.247602466743134 7.4578248411871204 165 152 136 0.62863318851990102 15 155 17 285
3274 4.5271315737462148 -1.5412962598187061 5.8270569379992843 74 33 12 1.4677658421677384 15 538 17 266 16 513 13 889 14 2204
3273 4.2967069630325074 -1.6500035424995565 5.4908588323561514 59 22 5 0.56413809027228645 23 267 17 263 18 375 24 258
3271 3.4970326616999041 -0.70772090957781419 5.4945064063304487 102 70 49 1.2628400077933135 21 183 17 243 13 296 14 282 12 220 10 249 11 305 9 361 7 373 4 395 6 462 3 582 8 2108 5 1256 1 1077
3270 3.0164246471733249 -0.73739579072813 5.6586826858595636 70 30 4 2.0258885281507975 19 241 21 1007 17 242 18 290
3269 3.3977790439789675 -0.69092761337608333 5.4803010116246131 90 48 27 1.5682124189754598 21 174 18 194 13 158 14 271 12 445 10 372 11 238 9 199 7 293 4 392 6 458 5 782 2 1380 8 1297 1 1079
3268 2.9690758672542974 -0.85334661853591121 5.7925277019033787 103 71 50 1.790329074817909 19 520 17 240 18 192 15 180
3267 4.6353904678998257 1.5452491036960618 6.06697487355187 124 86 58 0.68810985771810618 22 180 17 233 18 249
3266 7.9734674164499797 2.8102894957024702 8.7086735847981593 204 193 175 0.46940952785856027 22 230 17 213
3264 4.735555285347286 -1.1145828092743288 5.3696190058826492 117 98 78 1.9066732144223202 15 242 19 120 18 288
3263 2.9664240543631024 -2.0543543854739759 8.5144718966397992 135 117 90 1.2151959303376803 15 173 17 200 18 181
3262 2.8506466652615683 -2.275637423106962 8.4907753397686747 160 140 115 1.3771861058643367 15 137 18 215 16 110
3261 4.550024052188177 -1.6350409789422848 5.7417741713472283 121 85 56 1.0176368343833488 15 204 17 197 18 141
3260 4.3851804842725359 -1.6809801555642385 5.5486454350660335 88 54 32 2.3054728627896841 15 202 17 186 16 180 10 627 11 1493
3259 3.7155429897011993 -2.7249890217048796 6.1474492479141185 175 154 128 1.9876785700713009 15 272 17 184 16 175
3258 4.6475978506697153 -0.56123712148953009 5.3462512411290941 68 34 18 1.1782958202767295 15 168 19 189 17 168 18 199
3256 3.9151568389177975 -2.3928934103929516 5.6905299593906324 78 54 34 1.6309339943052066 15 142 17 160 16 125 12 111 14 112 10 109
3255 3.0790627055464039 2.711440361085474 9.1044663955225182 50 18 6 1.2398094089791409 17 155 18 126
3254 3.3877357794263108 1.5730886150775221 6.3727395213138065 55 16 0 1.9840535995647051 15 117 19 165 17 150 18 121
3253 5.4950953739872697 0.29279058352008874 6.3984102201542798 125 86 63 1.1519169090729342 15 161 17 148 18 103 16 208
3252 2.9779587995996448 -1.3722560705312861 6.3197997262896655 157 137 112 2.1474298659666373 15 477 22 137 17 137 14 869
3251 3.4277111199686221 -3.1592698427881238 7.6844206206056915 182 164 148 2.8360468779825658 19 122 17 128
3250 3.3551741130428416 -1.7941702090652467 5.797898898215827 99 75 58 1.7007912530186489 15 139 17 124 18 114 16 106
3249 5.7636953882907473 5.1927205474994951 6.9959719347040865 214 210 205 0.6467330604709316 19 158 17 118
3248 4.3716793207030653 -0.084858217053734045 5.323403761877703 95 46 19 0.47617939968092776 19 88 17 109 20 95
3247 3.6843671091060521 -2.667009873498364 6.2073790398100313 170 148 125 1.8263431900520612 19 66 20 70 18 87 14 58 24 88 10 65 11 69
3246 4.6579147534759802 -0.85378592015681032 5.2186035447404047 110 78 60 1.678720520674879 15 132 17 106 18 132 16 114 13 153 14 155 12 152 10 208
3245 5.0360662940416034 6.1931077520394169 10.301093173652182 193 185 177 3.2058220752793161 15 89 17 91 13 62
3244 6.3919743721116937 2.6596741133022532 7.8630127636996558 165 147 123 1.2455578873649 15 84 17 85 18 94 16 85
3243 6.0101525084833352 0.26627030423929943 6.8992676542994325 189 177 164 0.79219045622061923 18 90 13 100
3242 3.3087683594162174 -0.38624333311323455 6.0332903570012704 0 0 0 2.2381694653258597 19 109 22 58
3241 2.1807067599838912 5.8321343259372682 10.813863961889089 197 192 187 1.0922128923481722 19 81 17 67 16 34
3240 3.2120798249461551 2.7419862436520352 8.0937470404613538 130 112 89 0.43745641043507555 17 65 18 46
3239 3.4995251050627796 0.025840324500871269 5.7404013506720446 0 0 0 0.3489857321843215 19 64 23 96
3238 4.0762166403408653 -1.7574810838485746 5.1569337299902704 68 42 24 1.4830144519480244 22 37 23 49 20 43
3237 4.9441250134937409 -1.5562045338075285 6.1604931379282517 166 158 146 0.78119180535365851 18 39 13 38 10 52
3236 4.278274877772029 -1.0529332797493487 5.6164915352385529 93 66 46 0.70687355908416838 15 52 17 43 14 38 12 38
3234 6.1226899546651126 0.58841379901135993 7.175123703858886 96 53 26 1.5636401562085911 15 30 17 28 18 29 16 28
3232 3.8479286675492199 1.2665252173697328 5.8480776168398965 81 28 5 0.96911662304289303 19 15 17 16 18 12
3231 2.6700717795656868 -0.48770755656665227 7.0805226094938156 77 44 26 1.9148125747419329 19 13 13 14
3230 4.7652195524943677 2.6652154242845167 7.2113731344955614 79 36 14 0.72680562422346651 15 5 17 6 18 6 16 4
3229 3.8720225885922881 3.2876392419714451 7.3637489461450976 86 49 27 1.3839468959642121 19 4176 17 3063 18 2578 12 3666 10 3071 11 3328 7 4996 6 4292 3 3497 4 4419 2 4588 8 6440 4 2796
3228 7.4543728117187706 -0.72668196279182085 9.0473174971173869 190 174 153 1.4281705218997183 15 4127 19 3667
3226 5.6028691541929474 -3.7644668549418094 6.3652448935108339 160 142 115 1.5563372682157688 15 754 19 1118 18 797 16 1101 13 632 12 892 16 3864
3225 4.1580508891645236 -0.63875928843107443 5.2317822953850657 126 84 62 0.90978841296078816 15 1042 19 960 17 519 18 1058 16 955 20 1278
3222 4.4340962703607953 -2.48907142273432 6.0360189769886912 65 47 26 1.8091789409993939 23 1972 19 765 18 1799
3220 3.4396186924605034 0.086544286434410617 5.9589861230345864 41 22 16 0.59644686709763595 15 616 21 1704 19 1388 17 888 18 1534
3219 4.165688576978404 -3.1785957869170063 5.8960643642546353 63 47 34 1.6654427074579767 21 890 22 2131 23 1130 23 498 17 304 18 1072 13 1507
3218 3.3583809336668335 -6.5568103717824116 12.77098724106841 200 189 170 2.3974883465105568 22 1567 19 737
3217 5.5563784760401864 -2.09164077716121 7.1237663193954699 230 222 209 1.7930779373213361 21 1412 23 2109 19 1213 15 3535 22 2916 24 1771
3216 3.4716496834038635 0.97684895908510927 5.8906777897791143 69 26 4 1.477447816315649 15 3161 19 1251 22 1691 23 1576 15 913 17 1430 18 992 16 1428 20 689 13 1251 14 742 10 1704 11 1197 9 2658 7 1889 4 1133 6 1310 2 2315 8 6783 1 1781
3215 4.7716654267600873 1.5028714783792305 6.0355749425309746 151 110 80 0.42964835740894747 21 1092 23 1050 19 1306 15 2230 22 1486 17 1494 18 977 24 920 20 773
3214 4.2776530564485782 -0.0093775470590624372 5.2950283278761505 60 30 10 1.4003610884823323 21 1204 22 3994 23 1889 16 4990 19 2385
3213 3.8492610211745188 3.3153318043992908 7.3870670059951831 60 50 41 1.5633467417869258 21 2403 19 4180 23 2691 18 2572 20 636
3212 1.8512827979147766 6.1969430487436554 11.254921355066806 192 188 179 1.3658166142188497 21 3626 19 2904 15 3262 19 1487 22 6313 17 3049 18 4306 19 2905 16 5525
3211 5.8886530241163682 1.3797321739025605 7.2327688790600995 113 76 57 1.2081183301815535 15 1763 23 1684 19 1606 21 486 22 1111 15 914 17 685 18 995 16 2871 24 405 24 1425 20 698
3210 5.6325421486217575 -3.677180654914086 6.4039588693410625 192 176 151 1.3705850066495604 22 3247 19 2835 21 4066 19 3778 18 1806 20 2192 10 965 7 3294
3209 5.8418713509134763 0.33880400009294553 7.0129364095807647 94 58 33 1.8310689620317948 21 4191 22 5678 23 2536 19 4390 22 3941 24 1314 24 2124 20 1290
3208 4.0293813039459723 2.8391534993798104 6.9089740232703711 94 60 40 1.2506206850375254 21 5602 22 6069 19 4195 15 4753 23 2702 17 2063 22 2441 16 5631 14 5250 12 2408
3207 3.8490798248924705 2.8093635372042418 6.8579097477454791 62 25 0 1.6799794470037697 15 1327 22 1517 19 1020 21 710 23 662 17 1513 18 916
3206 4.6917191884538223 0.97063233577430719 5.6278122970015492 64 39 29 1.4608227189808083 15 2286 22 3493 21 2701 23 2645 19 2371 17 2758
3205 5.758347420905463 0.30673301465604569 6.8508235811969653 136 98 73 1.4659199076395188 21 4170 23 5497 19 4379 22 5704 23 5493 18 2399 24 2435 20 2239 20 2249
3202 6.2298249707401787 0.87808058823984059 7.1984023804254269 50 21 2 1.1870530538251451 22 2551 23 3603 19 1866 15 3054 21 1591 17 2078 18 2957 24 887 16 2375 20 1001
3201 3.0843546693476043 -0.017777323281137361 6.1170638848738728 51 15 1 1.7832708124459327 22 4993 19 4599 17 2267 11 2190 5 2030
3200 5.7873156805773442 1.0096478155816837 7.0362454130439298 83 40 14 1.0317502588665213 21 5407 19 4591 17 4226 16 4626 20 2794
3199 6.0439287605209939 1.3515570389610119 7.2148695418487989 65 32 11 1.92172099758445 23 3484 19 4565 24 5267
3198 4.3020644000237427 -2.0722531188485309 5.616683540449098 70 42 23 0.19209570381443233 23 4592 19 4564 20 1739
3197 4.2803943978310457 1.3184311676026246 5.7828637640581508 95 49 27 1.0732081644266342 21 3809 19 4558 16 5825
3196 6.0310911728036833 1.2930475327244857 7.2824140148718239 73 50 33 1.1004213589165797 15 3166 19 4521 16 4966
3195 3.4995097090889198 0.79442948344540243 1.4550966759823443 93 51 31 0.21325659276646258 15 4304 19 4513
3194 4.8548541519875936 1.5889634150156049 6.1757489969387542 89 43 15 0.46039413467859625 21 5066 22 5563 19 4490 17 4013 24 3121 20 1652
3193 4.3991745279020886 1.5670898550585279 5.8614807615666589 0 0 0 0.99004484330929077 15 4407 22 5537
3192 3.7318017306583808 1.5669151539294592 5.9778568435954096 118 71 45 0.74051502113018397 22 3465 19 4476 20 2101
3191 4.7565763614480119 1.5054852692629546 6.1101759851351094 120 77 48 0.30280261972848838 21 5044 19 4467 17 3016
3189 4.1385423009735529 1.5371624256390992 6.1085557810963396 72 29 6 0.89479843288131078 21 5675 19 4449
3188 4.5324899371285499 1.4997519151367138 5.8727332728759167 114 74 51 0.80879337177823363 21 4062 19 4443 17 3993 24 2168 23 2599
3187 6.2865677230029666 0.61011552157028992 7.15936485866726 132 101 76 1.2139256046164495 21 2483 19 4422 17 3331 24 3927
3186 2.7230654069717706 0.48964948586534651 6.6241975140910903 127 101 87 0.31263780596283086 15 871 19 4418 18 1432
3185 6.169664112589432 0.36233146667937466 7.0629254504418588 200 182 167 0.08630419689141014 21 4088 19 4391
3184 6.0909019752754352 0.34121317675141971 7.225135196885776 75 55 41 1.1567851526438 21 4093 22 5679 19 4387 20 2248 24 3891
3183 3.9319992377375561 0.52036516667979171 4.6316016946161893 92 50 32 1.7447693277315421 21 4095 19 4386
3182 4.5544446323380416 -1.7209347976273237 5.7215165281949965 134 101 72 0.63586551448269168 21 3053 23 1352 19 4342 24 1784 20 1433
3181 6.3713547727100215 0.83497753935579622 7.4796204975122471 129 85 58 1.7623582923099044 23 5649 19 4317 12 793
3180 6.3777188351175829 0.81818385440508368 7.4336931098261276 105 66 42 1.1582705771225763 21 3227 19 4314 16 1330 12 795
3179 6.2723153261992 0.78561109111986926 7.2464819354672567 113 70 44 1.2903261975458178 21 3234 19 4311 24 2090
3178 4.5998549912230438 0.85723026019820592 5.5903360619408851 106 66 51 0.55111945561322628 21 2659 19 4297 17 4179
3177 4.3636460273748128 2.7422211093207935 7.0336171987665539 129 88 59 0.82831391040406743 15 4741 19 4261 17 2862
3176 5.8888508742134951 2.9963382083388694 8.0202769199741546 106 97 73 2.1030064762001395 22 716 19 4257 17 2043 24 237 13 1722 12 3876 16 5332
3175 5.8367301476466693 2.8549683025637336 7.7500973604698382 78 38 14 1.5401963977740998 22 4234 19 4238 24 2997 20 2729
3174 4.0307846165564234 2.4757892874211631 6.6096300047794392 109 66 43 0.69289219717250761 23 2810 19 4225 20 2595
3173 6.1888611211556093 0.94087502420742875 7.2490394501226003 76 33 9 2.0662697714810245 21 3251 19 4209 20 1868 24 2074
3172 4.0494292760452604 2.9087517856315888 6.8904000479276499 77 43 18 0.2123279495632758 15 3400 22 6271 19 4196 17 4285 18 4291
3171 1.8707714285749584 6.7875199127042798 11.472133385704156 189 184 178 1.616067334577481 15 4847 19 4187 17 4250 18 3179
3170 1.8066462745953749 6.1921812787364754 11.268093850672338 184 176 169 0.91065142427041201 21 5611 19 4186 17 4395 16 5526 15 4851
3168 2.2578604138530074 3.4884014576623086 7.2553900207027873 175 158 129 0.78130431105986931 22 6348 19 4173 16 5554
3167 6.1317002061159362 3.1152636399906251 8.0177783203720008 160 133 109 0.52207011178079199 21 3756 19 4163
3166 4.0407023027877473 2.7909987451314668 6.8611622013729257 85 48 27 0.63174932924282745 23 3698 19 4153 17 3887 24 3235 20 2063
3163 4.1297217908592234 -1.2801921889118653 2.7380853002063521 85 59 46 0.69296083778507622 22 4567 19 4131
3162 3.7122388201788086 1.8716908476823289 6.0693246065027848 146 104 79 1.0005704782179308 21 1461 19 4128 18 1943 16 1217 14 1050 12 1636 13 1599
3160 4.849678257308403 1.7439081810245123 6.2465594358156737 107 63 37 0.82135717235779337 22 6444 19 4062 17 3975
3158 5.6400785931015394 -3.6820554818148672 6.473156184505128 185 166 141 1.3778885610894296 21 3831 19 4044
3157 4.9941006381772715 2.0181052627143798 6.4824581656289393 105 61 33 0.38016485560169616 21 4913 23 4095 19 4011
3156 2.8721846660904511 2.5309544968449167 9.3301935285764355 92 64 39 0.57467946353220045 15 2913 19 3997 4 4393
3155 6.6412055008771151 -2.1219929368933075 6.6007322834260904 196 183 165 1.3495243715064367 15 5134 19 3975 17 1784 18 1913 16 1880 9 1263
3154 4.5445551129496664 -1.6783348762213084 5.7481023661624464 124 85 57 1.6940439469075614 21 2136 19 3967 24 2826 20 1774
3153 4.6113283926473168 -1.7101741884846122 5.8104060070834969 93 52 22 1.0642790888107407 22 2912 19 3966 18 2479 21 1416 24 1208 20 1062
3152 3.2785942258692855 -2.1725723862564288 6.3782173614535935 102 83 63 0.97088019369792067 22 4351 19 3916
3151 4.4302338981666569 -1.4200304125086012 5.8883424296520719 73 40 18 0.58466286083604879 21 2777 22 4342 19 3895
3150 3.2944734028272906 -1.4913075610066517 6.5081854237810779 46 21 0 1.4419464810947813 21 2142 19 3878 18 1676 20 485
3148 3.7948432502958616 -2.2725897699606663 5.5745948639894278 57 27 14 2.7557595479832098 23 4437 19 3796 24 2627
3147 4.4442657640754195 -2.7575415850623006 5.8827744243071827 75 50 39 1.6027844106257207 21 3799 16 1690 20 2334
3145 4.4771334438980279 -2.6355467647438524 5.9266382618630198 111 101 83 1.8549606112648174 19 3787 24 2752 7 3388
3144 4.1368416650724997 -3.1354425918056923 5.8109229868252843 129 99 83 1.1851154527417134 22 3138 19 3781 24 2695 21 4415 20 2135
3143 4.0856834997872689 -3.1577166084027066 5.8500112526632897 120 93 75 0.57272799020007148 22 4637 19 3780 10 2366
3142 4.0603368651256995 -3.1639779120447971 5.839752293052471 123 108 88 1.6601680463441209 23 4474 19 3779 18 3198 16 3779 13 2554 10 2526 11 2781 7 2027 4 3160 3 1949 5 3265 2 5281
3140 4.1817497983670755 -2.3404281307587507 6.466032912387683 56 33 11 1.2031831818986594 22 4687 19 3750
3139 3.371906471881629 -2.247630931585773 6.3443636949965194 100 78 62 1.1580231370070182 22 3401 19 3718 17 3277 13 2786
3138 4.0701948656336446 -2.167764816207113 5.5938405475096724 87 60 41 1.2926781892575157 23 3362 19 3715 18 3565 24 2610 17 3579
3137 4.2982240635289566 -2.1212019909850546 5.656783679599803 106 80 62 0.36372910438173095 21 4447 19 3691 24 4195
3136 5.4269727494734168 -0.54583693380371501 5.8041070268207315 118 87 70 0.12863939316146381 21 3318 23 3905 19 3670
3134 2.7984258967306381 -0.26785301670763767 5.8997311207213841 79 42 15 1.3597073726815685 12 633 10 598 11 613 7 1171 4 860 3 879 5 2819 2 824 8 5307 8 5335 1 2101
3132 5.953646807858159 0.23689586075014313 7.0296037745319344 120 86 58 0.45831258432720096 21 3145 22 3960 19 3602
3131 2.5958257637659403 -0.26989737066011338 6.8135458443748718 101 69 44 1.1285061052443974 19 3553 18 2457
3130 5.8395115686189332 -0.068654569398480372 6.3879684322582504 79 38 18 0.64329007194357568 21 3433 19 3534 17 2325 18 1710 15 2441
3129 5.5056040518577243 -0.035534235995281757 5.8080054133672858 100 61 44 1.6800267109840601 22 3995 19 3532 17 2332
3128 4.0031380167117137 -0.0066125995645360111 5.225098923552741 89 46 21 0.62801698399557648 21 4626 19 3531 17 3389 16 4996
3127 5.0719512498320398 -1.1769970793151276 5.5464366284689746 86 65 48 2.0188098394676555 21 1816 19 3524
3125 5.8081021072317682 -0.97475038566488448 6.1211837748177809 74 44 25 0.35796696327823196 21 2889 19 3489
3124 4.9860589280085996 -1.1602429680910769 5.6886463105393927 77 50 28 0.32573080571967689 21 4692 19 3480 24 1469
3123 4.245484548328859 -1.1218852746182157 5.5504119982024633 76 49 25 1.3682743937296238 21 4735 19 3477 17 3722 24 3725
3122 3.0074981846120057 -1.0258919130133297 5.6511674080695213 63 38 14 0.31393227278976016 15 2703 19 3459
3121 5.5380988552981636 -1.0922968716733061 5.9632765010851845 76 55 40 2.8510115127985105 22 5112 19 3454 10 2622
3120 3.6321756339754829 -0.53175972952633532 5.3904690458945073 79 39 13 0.62873662372547789 22 4869 19 3428 14 2971 10 3356
3119 2.6047182028453175 -0.7671205421591597 6.6550318396156296 98 74 53 1.9219531284466813 21 1948 19 3426 16 3374
3118 3.0212921354682809 -0.55894443950831196 5.6501367213859526 67 39 19 1.0527079742380649 22 3881 19 3423 17 2520 12 2176 10 2085 6 4606
3117 4.566892585518703 -0.52033243360371872 5.3533034979058929 72 50 41 1.9230970593103407 22 4881 19 3419 24 4803
3116 4.890325088704337 -0.72945231592539839 5.4045794169850501 76 35 14 0.45781742971180261 21 5640 19 3413
3115 5.3253935999878284 -0.761007473157576 5.5488157585504174 72 31 9 0.23940322063097363 21 1188 19 3392
3114 3.4339939217282462 -1.6579741387138349 5.6837153603103818 70 39 21 0.42793597263878375 23 2180 19 3377 17 3112
3113 3.596296256717034 -1.6138903582644892 5.6445387459987746 74 37 12 1.0445835259524001 15 1857 19 3362 16 766 13 478 14 1589 12 2828 10 890
3112 3.920041321788883 -1.6080410082888075 5.5876717345046547 87 50 36 1.3135507396026176 23 2129 19 3361 13 1278
3111 3.788105232643888 -1.6238063492345129 5.6689357301868961 86 48 24 0.8732895602231926 15 1808 21 4326 19 3360 16 1131
3110 4.2588938880523042 -1.6669730266536982 5.4461503118900785 71 41 22 1.4636916924840619 15 3750 19 3356 17 3506 22 3348 16 2512 12 1590 14 1559
3109 5.3444049739683068 -1.3932672722388275 6.469560783442188 105 87 70 1.4549389673928799 22 1203 19 3319
3108 2.0629478546025632 -2.0693533904949932 8.9028479200624773 154 132 109 0.79231237155592749 21 2139 22 2875 19 3310 18 2653
3107 4.211794735957092 -1.2419848064217736 5.646503930457504 60 31 4 0.75075664770789929 22 2878 19 3307 16 6090 20 1658
3106 3.9716844939060403 -1.0750684133474546 5.381099044429499 69 43 26 0.68305084975211638 15 1527 21 2708 19 3302 18 1667
3105 3.2435422742078917 -1.3471589497675356 6.2505762780600804 81 60 42 0.14881243742422173 22 2851 17 3146
3104 4.1438403912926676 -1.4413605141914281 5.685190057182357 83 42 24 0.51625615339335895 23 4302 19 3280 16 4458 22 2937 12 2754
3103 4.5087729039550153 -1.5569474598528521 5.7784831230730553 87 43 10 1.5575812578605011 22 2953 19 3268 18 3369 24 1810 20 1784 21 2112
3102 3.397479137990107 -1.4348704083740718 6.2257877923128202 74 46 30 0.57560636778227137 22 1859 19 3264
3100 4.0904881360551428 -1.3111947394299546 5.7258735685067581 83 53 30 0.87029424978034642 23 4124 19 3261 16 3288
3099 4.168608714227263 -1.3701371145829837 5.7755657540545347 116 88 68 1.564430449618637 15 3318 21 2773 19 3253 16 3307 13 1895 14 3124 23 4327 9 2146 4 3050
3098 4.8348614631833406 -1.5527433812741107 6.4042447766621553 78 53 34 1.082457041177022 21 1355 19 3249 24 682
3096 4.4445949766464796 -2.7360387550861058 6.186466160945284 66 31 20 2.3275304847268723 22 2084 16 533 20 2110 19 3218
3094 2.7128875678027309 0.62757156258517643 6.7175812964309278 87 57 41 1.5575774082666802 19 3173 18 1431 15 1443
3093 4.4106221728549766 -2.0534375342396913 5.6880842808357892 87 54 33 1.33883073429481 23 2164 19 3168 16 1852 13 2092
3092 4.1213452833496858 -2.1183984246473888 5.7298483846986423 74 45 26 0.5062969264235504 23 4594 19 3157
3090 3.2858714581883137 -2.1926160808786386 6.3322660837291682 163 145 124 0.7019748743810531 22 2272 19 3142 18 3518
3089 3.8253459226016697 -2.1116333674801981 5.9173436677265121 0 0 0 1.0172165202640164 21 2980 23 3140
3088 4.5346606600675097 -1.9474538536193708 5.6622984414852233 104 72 51 1.6963509602408242 22 3307 23 2148 19 3133 24 2873
3087 4.0828300797323243 -2.3137246822578006 5.6987774666513138 70 42 23 0.34603188159447557 23 3355 19 3129 17 3607
3086 3.7137352066700635 -2.5783121413059837 6.1534775751454571 96 76 54 0.78484742999900092 15 1747 19 3122 16 1084
3085 3.9490759090661354 -2.4667635212355363 5.8014658217649755 110 86 67 0.70841321328638751 22 3167 19 3116 17 3222 16 1765 15 3415 14 1543 12 2618 10 2431 13 1575 11 2556 9 2950 7 1557 4 1388 6 1520 3 1212 5 2508 2 585 8 1380 1 627
3084 4.3642032154688444 -2.131639593357999 5.6595529381593179 80 52 34 0.6410482554952619 21 5539 22 3366 19 3112 17 1711 16 2389 13 2026 14 3132 12 2658
3083 4.3102518857045382 -2.1333796995365106 5.6704141598501758 81 53 34 1.3550044639049301 21 3441 19 3111 16 2387 24 1829
3082 4.2184253801847573 1.656952965362976 6.1615573612985841 108 68 41 0.7883046304781357 23 2277 19 3082 18 2764 14 4977
3081 6.0196744527758046 1.9118629069293049 7.4604020046866939 100 55 32 0.51648548332948252 23 3695 19 3081 16 2654 24 3445
3080 4.2795061121788889 1.6929582688367029 6.1449870456514315 111 67 41 1.4501972197409505 22 3852 19 3077 17 2680 24 1920
3079 4.0839742041291753 1.6871459904613562 6.1413361436300775 116 72 42 0.98313399576939853 21 3998 19 3076 20 2181 24 1266
3078 4.6822316928084495 1.61228584352142 6.4096023125550721 154 110 85 2.9923411061935119 17 1482 24 1408 20 780
3077 4.3670154351426351 1.5598924024369514 5.9896801568529785 96 51 28 0.12041727879824904 21 5063 19 3062 24 3430
3075 4.8796464226712066 1.9887734146560931 6.4084753553024969 105 61 33 0.88706203756402968 21 2230 19 3044 17 1961 24 1878
3074 5.5024696812342393 2.1805792921704521 7.1577987092711597 101 57 36 0.54946980747846985 23 920 19 3041 24 806 20 1115
3073 5.337493319308841 1.356687851389349 3.1379452519542892 192 180 164 0.47063992729384374 21 2271 19 3026
3072 4.1689182569536332 1.3398664874501094 5.7113354441690722 64 14 0 1.2093450250769098 22 2719 17 2828 20 1574 15 2858
3071 4.164938314987622 1.2941751950618454 5.6827864908960377 114 69 49 1.2453470682654271 21 3806 19 2982 17 2842 20 1571
3070 4.9260026855064449 1.1952536769771567 5.7596768936802469 119 75 48 0.015783616342991746 21 2608 19 2972
3069 4.5409535943179522 1.1945187076959221 5.6212294360318245 126 88 76 0.95231117872049487 22 3727 19 2968 20 1992
3068 6.064251923170362 1.3944928847188338 7.2731764448081186 84 44 12 1.2922977939909359 21 3916 22 3722 19 2966 18 3026 16 4821 24 1432 24 5257 23 5071
3067 5.9551767709866077 1.4043254733431092 7.2429509851589682 84 53 34 0.67054883172723267 21 3893 19 2963 16 2901
3066 5.9634984401340256 1.4202153336902796 7.2370835154012809 71 30 5 0.91153643650037941 21 3519 22 3737 19 2960 18 3973 16 4303
3065 4.851440282195127 1.5123537418121671 6.1013699005813606 89 43 12 0.93766747484716917 22 3647 23 2610 19 2955 17 4352 17 2799 24 2166 20 1645
3064 4.73619530424362 1.5371610952822818 6.0991456163047264 100 55 24 1.1780987780397509 21 4058 22 2726 17 2606 18 3019 15 2897 16 2675 24 3540 20 2090
3063 5.9917829171368551 1.713599814171942 7.3824326738761883 71 25 0 0.89418699307011074 15 4240 19 2936 16 2277 24 3555
3062 4.976606799275495 1.4544290885914759 6.1107940987701497 122 80 58 0.69344626971604972 23 2567 19 2935 17 2790 21 4034 18 2999 24 3507 20 1633 22 1685
3061 4.8007099204842811 1.4826818756943601 6.0435779984339177 87 42 12 0.65765562947538192 15 2848 19 2922 16 2662 20 1627
3060 5.1597178764470923 1.5319318715346335 6.3866835766033985 122 79 54 1.069640169074483 21 1672 23 3779 19 2918 17 2191 24 3558
3059 4.7090405767240062 1.4934522825583878 6.0891694737672299 79 33 5 0.93752947168800405 19 2917 24 3566
3058 2.1033424643238532 3.5114599142124656 7.194807111523243 153 134 106 0.8037622729982048 15 3303 19 2912 18 2018 16 5556 17 3057 13 1702 14 3035 12 2389 10 2339 11 2359 9 2440 7 2965 4 2764 6 2843 3 1210 5 2772 2 4823 8 3765 1 2633
3056 2.7110419909322885 6.7492192500282089 10.509406260227459 197 191 185 1.2718369000892027 21 995 22 2148 19 2901 17 906
3055 3.574664117731273 3.1077059820066375 7.678000337649495 78 52 28 2.196730625273235 19 2886 18 1366 16 3472 16 5667 17 3028 18 2034
3054 4.5762665489408061 3.1846499999013882 7.4259499521795691 102 83 61 1.0503705509492007 15 2031 19 2882 16 5658
3051 4.3050533486544396 3.2874003818739541 7.2946645177147982 98 79 59 1.5651036969138434 19 2873 17 1993 18 2607 7 4665 6 1741
3050 3.8696948364519272 3.3394106564933561 7.491557411988695 60 29 2 1.0828694210822938 21 5627 19 2872 17 3062
3048 6.3498173026332809 0.69950204231565372 7.3396042337561038 102 78 53 2.3424622529034353 22 2557 19 2852 17 3344 19 2520 24 1382 12 180
3047 4.0330570752679735 0.38048843184209785 0.83764941265886583 85 38 13 0.1674688140126368 22 5786 19 2846
3045 4.3025391479174582 -2.2277798191745548 5.6678071560789105 50 16 1 0.62402729790042222 23 2018 19 2830 13 2017
3044 4.5716165832942606 -1.8318826604188798 5.7073311486007752 115 74 52 0.89385312468384048 15 3765 22 2258 19 2824
3043 4.4725750004638236 2.5754213989947083 6.8025570384390104 69 22 0 1.7743675891426267 21 3502 19 2812 18 2820 17 3825
3042 4.2223880481848663 2.5490143800814025 6.7337813879795894 117 74 47 1.6102841267453927 21 5501 19 2800
3040 6.0890648325066383 2.7878837446503129 7.8115128164465828 106 63 35 1.4216228531831576 21 1542 19 2780 18 4494 24 2027 20 2037
3039 6.1126699574432761 2.7688201438786364 7.7669099137514275 82 37 5 1.3447069966285188 22 2506 19 2779 24 2026
3037 3.7428718153818767 2.80694345783956 6.9463697131507258 87 54 34 0.64438005234802609 23 5725 19 2762 18 2970
3036 6.4804065476683794 3.1658059716293265 7.6496591011600357 163 143 118 0.83502188283015644 23 2336 19 2758 17 2067 18 2061 24 1971
3035 6.0552673188531321 3.0058969335331578 7.8998362384193417 91 54 26 0.98402591035977061 23 2347 19 2753 20 1976
3034 4.0392419118209641 2.7449542618656646 6.8881745883504983 108 69 52 0.83123923472150973 21 3752 19 2743 17 2847
3033 3.4271622445300225 2.8592543743641694 7.6235012488184921 82 54 27 1.9143362183934673 19 2741 13 2482 14 4819
3032 3.2212083337852979 3.031134312241492 8.3482791685337485 111 92 66 0.6156588097293838 15 1329 19 2739 18 2711 16 5693 13 771 14 1261 12 1702 10 1614 11 1611 17 1347 9 1042 7 1719 4 1036 6 1769 3 1066 5 939 2 1195 8 1661 1 1762
3031 3.713680250918161 2.6814088664112865 6.6979918563199181 80 37 10 0.4925115233972871 21 5641 17 3933
3030 4.1474387723681962 -0.2964474002777262 5.1629758131281509 96 60 41 0.99957477245309656 15 2517 19 2726 24 2534
3028 3.0167383137250963 -0.54322625532467628 5.6556732656121396 99 72 54 0.53436093611907498 15 2360 22 2013 19 2708 17 1549 13 961 18 1740 14 1382 12 1341 16 2993 10 1362 11 1857 9 2087 7 2433 4 2645 6 2177 3 2206 5 2481 2 2706 8 5083 1 1962
3027 2.4707301523470528 -0.61321319171918565 6.7236281854772662 112 86 62 1.6523386930979269 18 317 19 362 16 1045 13 579
3026 4.6892533802933771 -0.31145669864561165 5.3312638816406013 71 33 10 0.035197785215341892 21 3287 16 3580
3025 3.2019916797475503 -0.36311612000196253 5.3580494888288559 57 25 8 0.17705706136557528 15 2513 19 2694
3024 4.1689311903349742 -0.30890836519623327 5.148691049195409 69 31 9 0.87040541319832121 21 1983 19 2691 24 2325
3023 3.6460574576148836 -0.32562935454572473 5.3362580312652907 102 62 40 1.764180211665672 15 2509 21 3343 19 2690 18 1696 17 1026 14 1371
3020 3.3668303888431774 -0.16765406096017912 5.3406667079579062 97 55 33 0.52039435569277936 15 2454 23 3801 19 2659 18 1682
3018 4.8050617064816539 -0.77361036635663771 5.2032022241568061 90 48 23 0.54001223925399977 21 1801 19 2636 17 3806
3017 6.6390277556800097 -1.1402503067102161 7.1032564809752019 176 160 142 1.0317910129147778 22 2976 19 2619
3016 4.2413176635449359 -0.73090007923245859 5.2593838439414293 101 69 48 0.82569339899817573 23 2940 19 2585 24 1508
3015 3.4655559985478042 -0.64534950843089101 5.4775982803358154 117 87 68 0.81878607092926003 21 1973 19 2563 10 3095 13 2976 11 2907
3014 2.8967755094361523 -0.76091285079748239 5.874598288125104 88 61 42 1.3232811283980226 22 3009 19 2560
3013 2.9166968623647991 -0.74704948959846307 5.883047280283809 84 57 38 0.99783383419162419 15 2337 19 2554 17 2444 18 3888
3012 6.8309650965851647 0.79597672030463573 8.1987156618445081 159 143 124 0.92320513018199124 17 3320 18 4088 19 2550 22 3577
3011 5.7756244997686794 0.76443561877564381 6.9575972385616067 99 54 25 1.2210110190818648 23 2440 19 2547 17 3324 21 2506 20 2187 24 5374
3010 6.1511775209056507 0.81126653961066708 7.1179521342654946 99 57 33 1.6390479871401684 21 2503 19 2545 17 2362 15 4528 24 3329
3009 6.105581995282674 0.85128727050660269 7.1670837600209403 100 62 36 0.14402584656190498 19 2537 16 2569
3008 6.0437226025301776 0.92786976309584268 7.1557429078418044 93 51 29 0.4011958911084853 23 1583 19 2531 24 1341 20 1587
3007 6.1643839597808805 0.74149688563329719 7.1231900926767642 81 38 12 1.9145164261926724 22 3579 23 1559 19 2512 16 5202 20 1640
3005 6.1298295855619704 1.2468141880017876 7.2877617598767861 71 34 8 0.37862917952941011 21 2684 22 3483 19 2504
3004 6.1248330026022062 1.1237447480760501 6.477294438035508 94 59 28 1.4623517602736293 21 3238 16 2290
3003 6.176987327175298 1.0618596273581453 7.2198703511214921 76 37 11 1.8975052971954205 22 3427 19 2476 24 2105 20 1598 21 2707
3002 5.8136482716595275 1.0591632649072515 7.1130169070080376 100 58 34 0.53373698311934203 21 3176 19 2473 24 3265
3001 5.1209405905001999 0.21980891220695009 5.8239759060861074 88 42 20 1.1535994656361759 23 2502 19 2452 17 2388 15 3933 24 1599 20 1869
3000 3.89601856206958 0.14843811157057166 5.6892458810271735 98 60 51 0.95553757503173509 23 1131 19 2450 18 1475
2999 5.758018648030566 0.028331896675700626 6.4342117606062539 102 66 50 0.72660508376808686 21 5290 19 2440 20 2444
2998 6.7465277926244704 -0.088244333361793048 7.7019146987239511 172 154 136 1.3480697182940127 21 2538 19 2439 17 2277
2997 3.2434419347037178 0.021673775423316645 6.0343030307532475 97 64 47 1.6720979543865127 21 3379 19 2423 10 2023 14 3121 11 2597
2996 6.1747127793058176 0.47917868089795523 7.3117412790851848 108 65 37 0.7001880635493084 19 2414 24 1370
2995 6.1589226949576723 0.32634091221588346 7.3155490033010278 202 188 175 1.0663749356462993 19 2413 16 5315
2993 3.9672220847391624 0.98670470254582043 5.7141976146818294 112 67 44 1.3623847975000298 21 2700 22 5485 19 2366
2992 3.4468855381051471 1.0056432661004524 5.9082986402273292 114 70 45 0.73054740621126657 15 2314 19 2364 16 2253 14 4053 11 3247 7 4046
2991 4.8044686947273778 1.0366979560995759 5.6827763806984306 88 37 7 1.1645370954845469 22 2760 19 2358 17 2108 15 1461 16 2775 24 938
2990 4.7070220910642222 1.4153842935437513 5.863150569990994 109 65 44 1.3318493085844938 15 2860 21 2642 19 2348 17 1763 18 2998 16 2279 23 2569
2987 3.0541837824773768 1.4967912388652231 6.7524015930414594 70 36 12 0.80718986965861239 22 3585 19 2330 17 616 18 1511
2986 4.0729477810468815 1.4505192093435713 5.9347622032491643 81 36 3 1.7327027468967546 15 2894 21 1673 19 2328 17 4322 24 2186 10 1748 12 3593 12 825 11 1745 9 3601
2985 5.9411420965995703 1.7355731154765934 7.4067322051753113 92 52 30 1.8287541055013097 15 2850 19 2327 21 4046
2984 6.0910195204325737 1.2829619476046299 7.251779652865431 120 82 61 1.744825750105329 15 3232 19 2324 17 2234 18 3960 16 2771
2983 6.25949137765482 1.4211345394327701 7.4178813763984124 94 57 28 0.33690406093470154 23 2667 19 2315 24 3302
2982 4.0847153806707954 1.377293587293958 5.9095533054505864 69 20 0 1.5116551619584906 23 1635 19 2314 17 2248 18 2995
2981 5.7557951920261292 1.4763382749892966 7.1755055365030387 87 41 11 1.7058669583869828 15 3188 21 1709 19 2308 18 3907 16 4853 24 2260 22 3715
2980 4.3348902910510727 1.3205818659169257 5.7454263575601221 67 19 0 0.71869802530038018 15 2297 21 3812 19 2305
2979 6.2474085797852732 1.5691063876157363 7.4743178733017874 192 179 163 1.0535648584430508 23 3737 19 2303 18 3897
2978 3.7551058620653741 0.13109781128675801 5.7348788658154213 78 40 26 1.2681114171349146 19 2294 10 1342 11 2186 9 4075 4 2312 5 1998
2977 4.6272450507970877 0.15900538356321156 5.7201430244181424 60 13 0 1.0946244745573035 21 2579 16 3147 24 1042
2976 4.8005884119562507 0.21482626301470167 5.855611259965797 82 39 20 1.4218773009532459 22 1628 19 2283 17 2123
2975 3.6612560973171986 -0.038582619210281562 5.4532047039330349 88 39 12 0.97398311639091395 15 3977 21 3446 19 2262 16 3126 24 2578
2974 5.06567976443388 0.26813766014657964 5.7618423722527563 80 33 12 0.61155044810736403 21 2496 19 2239 20 731
2973 6.1964866851691021 0.9412735205892363 7.1837239215328639 111 67 45 0.87788237749641862 21 1104 22 1755 19 2236 17 1415 18 2898 23 2480 16 2310 24 2073 20 1860
2972 6.0354536682230524 0.96954868547756234 7.1467301100214184 92 52 30 1.6285651147565072 15 3229 19 2233 18 2892
2970 5.7677342738406709 0.90030592019863698 6.9559773361360637 125 87 61 1.8207738610909137 21 3258 23 2483 19 2226 17 2930 18 2895 15 3057 16 4792 24 1339 23 2482
2969 5.4530234990699311 0.25823317202241985 6.3023852944064789 124 81 61 0.56689935317734885 22 3962 23 4022 19 2225 20 1299
2968 6.6626735645207242 0.29158329767167618 7.9253773829899323 167 155 142 2.1783476438818234 21 1622 22 1640 19 2219 17 1084
2967 5.830322918485936 0.47607921283373117 6.8493318901933931 107 64 38 1.9070602192630948 15 3051 23 1009 19 2213 16 5304
2966 4.0484364111324016 0.52415967418386789 5.659993738292135 98 55 37 0.27602521995369705 22 3544 19 2208 16 3365
2965 6.032332490202867 0.61093438571665548 7.0163416717669795 71 29 3 1.2254253967114255 21 3119 19 2207 18 2930 24 2152 23 1012
2963 4.1713941412159636 2.694773129661995 6.8611100364736775 126 89 68 0.54462929981424912 21 2445 19 2190 17 2861 18 4343
2962 4.8694665569214859 2.9331188410747964 7.33178141024172 61 26 3 1.4095141531138971 19 2178 18 913 17 643 12 1744
2961 5.4272771706662297 2.4866774606424724 7.4195188158203669 80 46 23 1.535857935584243 23 1428 16 1434
2960 4.2183064537454031 2.3156225725521642 6.482993167224822 116 67 42 1.1644871086903799 15 1951 23 2383 19 2166 17 3834 22 4266 16 2084 24 2937 20 1462 13 1725 21 1549 14 4694 12 1637
2959 5.6845729419694679 2.8213483152890877 8.6119678710520251 102 85 63 1.3559436689465043 21 2433 22 2319 19 2163 20 2006
2958 4.5753916447833216 2.3591680467418268 6.5371709769729174 96 54 34 0.52092411733659394 21 1547 19 2161 16 2086
2957 5.82345531629805 2.8928213909208136 7.9798190201133918 121 100 80 1.4239326521002635 15 1946 21 2410 19 2153 18 859 16 3758 24 1316 14 4688
2956 1.834747356352346 6.1902399371921426 11.206712546976595 144 133 127 0.78902354930080099 21 2390 22 2454 19 2149 17 2027 18 2037 16 1281
2955 1.850327176167702 6.3471218357178447 11.278880142880215 207 203 198 0.96202513390697086 15 2046 19 2147 23 2363 18 2045
2954 1.8993079495770395 7.1069125529838342 11.599126179307831 181 177 172 0.98621524857738063 22 4055 19 2133 17 1329 18 3236
2953 2.6364377408226205 6.1415193126713028 10.177323409726789 131 122 104 1.9670012870952909 15 508 21 523 19 2130 20 1126
2952 1.8752228892762239 6.5938395044237712 11.381825520244476 210 205 200 1.3590803312806854 15 2041 19 2129 17 2026 16 2044
2951 4.1232294709704167 2.871014657272652 6.9529285743340807 101 62 38 1.7192137755501486 21 3738 19 2121 17 3036 18 2085 16 5683 24 1974 23 5705
2950 1.797791278394762 5.8061842669168398 10.961727729388063 172 167 161 1.0766426978004142 15 3309 19 2116 17 1985 18 4309 16 5523 13 1694 14 5153
2949 4.0376251593660761 2.9957916590603619 7.024827626610902 83 49 29 1.2156082798011476 23 2377 19 2114 17 1365 18 1365 16 2020 13 1679 14 1145 12 2424 15 1757 10 1618 11 1656 9 2414
2947 4.2249246091417811 1.5817980289993419 6.1047086044362926 71 24 0 1.2456372667139211 23 2284 19 2098 20 1602
2946 5.7488677386337557 1.796966616875183 7.3577382251199914 66 23 0 0.8234345090302071 22 2707 23 3611 19 2096 24 3131 20 1202
2945 4.0923992971480505 1.5745674760871839 6.0640365593820347 59 13 0 1.0116698729847424 23 1448 19 2095 17 2205 18 2210
2944 3.9847469262408541 2.1605094630577768 6.2966462882964498 112 72 46 0.72847118045585779 23 2402 19 2091 17 1892 18 2869
2943 3.4977228400278633 1.561542953203529 5.9983317028629566 71 30 4 1.3168733190619353 15 1966 22 2353 19 2088 18 1347 16 1253 14 777 12 1126 11 1055 4 1023
2942 4.3858100412511165 1.6173674565566318 6.049872842826681 66 22 0 0.44432506183164727 15 2241 19 2085 17 1446 18 1990 16 2006
2941 3.9878914734441113 1.6362362639998669 6.1842830429393159 80 39 13 1.4046126966981607 15 2827 19 2082 17 1474 13 1079 15 1963
2940 5.4976923260518813 1.51055128366488 5.5677849995220949 91 51 29 2.3148055283714379 15 2235 19 2071
2939 4.8333772194962084 1.5780479545162256 6.2318932819792474 81 35 2 0.51610332138900505 21 1482 19 2069 24 2210
2938 4.2636859579001483 1.5296502507931493 5.9742524842948459 70 22 1 0.7350181472671421 19 2068 24 2209
2937 4.0870055326332499 1.5330335239224313 6.0608380105406452 67 22 0 1.6927160407015378 21 4040 19 2066 18 3004 22 3627 10 2454 11 2133
2936 1.616917513181366 2.0619440925259074 11.245418069957466 146 126 95 0.54279828807954178 21 3815 22 2094 19 2060 23 5111 17 2195 18 1565
2935 3.1923866934688139 1.5931695167368307 6.7108112081721352 62 23 0 0.43748200128877923 15 1262 19 2058
2933 3.9673541991374592 1.8757354629208121 6.2391381362477683 96 48 19 0.57575293930894944 23 2214 19 2049 17 1963 18 1950
2932 4.0778263414257774 2.0941340857022932 6.3562455764958656 140 88 58 1.7253969565984641 15 1922 22 2293 19 2036 17 3857 16 1290 20 605 17 855 13 2393 12 2322
2931 4.053794843864547 2.1727250001243767 6.3756950976709952 86 41 10 0.80912799634239418 21 1558 19 2031 17 1254 23 914 18 1971 16 1464 20 854 14 3187 12 2326
2930 7.5335714300920822 2.7673674443791172 8.6082711710659616 164 146 122 1.2124934811823413 21 2259 22 1500 23 3320 19 2030 18 1290 16 1951 24 1304 13 1614 14 1663
2929 3.8861507491931411 1.6564890912752201 6.0824875281402075 85 41 3 0.23152818474679382 21 2338 19 2023 17 1951
2928 3.5793409729873247 1.7480542444286653 5.9723733252168563 101 60 36 0.48509803848535421 21 2256 19 2009 17 1748
2927 3.3244525877762623 -2.0312417300299197 6.069055413977325 99 76 61 0.83698010165734549 15 769 19 2003 17 1157 18 1257 16 752 13 484 14 653 12 477 10 434 11 486 9 446 4 301 6 296 3 438 7 1110 5 506 2 314 1 798 2 1296 8 3772
2926 6.6516436219102122 -2.1383119515600515 6.6328267168624082 195 182 164 1.2847277435369213 21 1393 19 1997 22 2250 24 1192
2925 5.2603732639196297 -0.80442239712306096 2.6566232452862746 247 234 216 0.51818383326670248 23 3052 19 1996
2924 4.5892418831994632 -1.8212022919908071 5.6788494766558015 95 53 29 1.0652826005096923 15 1888 19 1995 16 1883
2923 4.0531846866621368 -1.3138221919671624 5.7470436433707075 89 59 38 1.2341265940771413 15 1604 21 1386 19 1992 17 1509 18 1062 20 737 13 1339 12 1552 14 2843 10 1466 11 1480 4 2298 6 1594 2 2517 8 1497 5 1282 1 982
2921 4.199207316968895 -2.1366939366754809 5.6257393355730034 73 46 27 1.0627606162235101 21 2029 23 5942 19 1978
2920 4.5439315082271445 -1.918593420645885 5.6751165310360419 82 44 22 1.6622537010890348 22 1766 19 1968 24 1859 20 1787
2918 5.5185367515987043 -2.4175401765054505 6.9553228386852304 228 219 202 1.459690627633228 15 1897 19 1959 16 1894
2917 4.6310571923174324 -1.5085124845447224 5.8329748617083172 99 63 38 0.72045538566197609 22 2204 19 1953 24 1160 20 1060
2916 4.4748058296643061 -1.4630535598760113 5.7928255193326184 60 24 0 0.99483255661270464 22 2199 19 1951 17 3083
2914 3.530350228130223 -1.649891339294759 5.6371509918664433 104 71 52 0.92862566014311199 22 808 23 1351 19 1927
2913 3.6367941034598932 -1.6072236438603611 5.6367331776684848 75 35 11 1.4558898074304967 15 1856 19 1921 17 3521 12 2821
2911 3.743046309815599 -3.8648242762744736 6.9946992204406433 181 165 148 2.5941785979960734 22 2136 19 1904
2910 4.1418735252908636 -3.0178780311234874 5.8075820771922588 81 47 21 2.1856113898352545 15 1744 19 1897 16 2419 13 2876
2909 2.5034850921564162 -3.8290275910842726 7.7923797243299218 207 195 180 0.43829765101743279 15 1217 19 1894
2908 2.5089917653983549 -3.7647387480626349 7.8084766471083418 204 195 179 0.43621443222051726 22 1344 19 1889 18 798
2907 3.8116347322880637 -2.928115942672509 6.0022411592836322 119 94 71 1.7723552814611792 22 2052 19 1886 17 3557 18 1192 21 3781 14 1473
2906 4.6079980407407515 -0.56934757077683007 5.3321791973253436 65 37 27 0.70149429635169203 15 1700 19 1877 17 2437 18 1131
2905 4.0903740517927263 -2.3099713831085502 5.651735185038369 99 72 52 0.43090574743260324 21 2047 19 1873 17 3182 16 2353
2904 3.9592781200475966 -2.5561566306618304 5.6955956707363384 82 52 36 1.030988961806105 15 1755 19 1871 12 1521 10 1394 11 2554 9 2959 16 3960
2903 4.0915134550851819 -2.5634261764707236 5.6776454322336694 68 38 18 1.4173766076476395 23 1280 19 1870 17 3209 16 1684 14 1484 10 2377 7 3271
2902 3.4393659391072684 -4.0575660359765848 7.2967594422320028 229 218 200 0.37568605816601669 22 2139 19 1868 18 1807
2900 4.6371580221785873 0.81962818158514839 5.6688819617338337 114 74 59 0.28920168312115935 21 3260 19 1865
2899 4.4211565924530296 1.552976532124557 5.9915093558917736 75 32 4 1.2064574313506562 23 2286 19 1862 17 2621 18 2224 20 1651 14 2461 12 3595 11 3121 10 3288
2898 4.1957736268458348 -2.2157095986229134 5.6588512000695914 64 33 14 0.90925058491876964 21 2037 19 1837 18 3227
2897 5.4964705266114366 -2.7499018613808923 6.8047974280920247 239 230 213 2.1230184858123695 15 1739 21 1283 19 1830 16 1716
2896 2.7520574899878656 -3.6108961568318563 7.8473874102362844 204 186 170 0.90318052766376511 21 2086 22 2117 19 1828
2895 4.1405449208688161 -2.3609640845824638 5.6642905514890867 0 0 0 1.5029102136975627 15 3638 22 4593
2894 2.8994653827451784 -3.5186816310661371 7.8726241650334376 205 192 174 0.55596278062598048 21 2015 19 1817 18 1769
2893 5.6386362120471425 -3.0498727100815355 6.6974152995906318 236 224 204 1.166322423142836 22 931 19 1805 18 3445 16 2404
2892 3.9157663889620915 -0.55438989553870266 5.4484588802672071 89 48 19 2.4587735289933552 19 1800 24 993 22 620
2890 6.6900066535124871 -0.5981281206817084 7.3907983142809339 175 159 139 0.63648254181814867 19 1784 24 1665 20 1253
2889 2.6566508803545257 -0.95314895807245925 6.4744074233442639 73 46 24 1.7146835708698653 22 1814 19 1777 18 1054 16 475 21 4760
2888 5.6523645456391636 -0.88233067563429546 6.3713137075358999 108 76 59 2.0216409139475302 21 2815 23 1700 16 4243 24 988
2887 2.9052705758823145 -0.81107122805557597 5.9376127795537448 107 81 61 1.155749280409113 22 3003 19 1772
2886 2.8687548196080543 -0.83316719665815919 6.0862028885007877 107 78 59 0.50127840053463435 15 714 19 1771 17 707 18 547
2885 2.7774791427639278 -0.82229773276008089 6.2854750172251821 54 23 4 1.0341175025462834 22 3010 19 1769 17 2410 15 2336 16 3338 12 1374
2883 4.316223907805786 -0.58619530627669736 5.2623752607256131 106 65 44 0.97364995039810576 21 2845 22 1251 23 1732 19 1766 18 1127 16 1465 20 2426 13 941 14 1425 7 4588 4 3625
2882 3.1160874897370716 -0.62143732631277382 5.6237916105599295 99 66 45 1.01004157156351 15 1684 19 1756 17 1529 23 3415 16 972 13 954 12 1313 14 3114 10 2123 21 2840 11 932 9 1927 7 865 4 869 6 920 3 1366 5 1723 2 3067 8 4552 1 1039
2881 3.326818224104974 -0.14153902569444235 5.3470681331521259 92 49 26 1.2557857507695764 22 1236 19 1754 17 1684 18 948 15 690 16 1010
2880 4.4344899789136871 -0.10989848445234103 5.3174712025457671 113 68 46 0.37499256058934011 23 1860 19 1753 17 1682 22 1225
2879 4.6742938265806071 -0.06584837151813655 5.3344886369910922 88 41 16 1.0618537974709508 15 2187 21 5291 22 1228 19 1730 18 2465 22 4005 16 1606 12 945
2878 3.270901833116433 -0.31260949771769564 5.3366689454099774 74 41 24 1.5481880919453335 22 836 19 1728 17 508 13 646 10 932 9 1787
2876 2.7974017561022104 -0.26404978415414959 5.9090213224070895 66 24 0 1.3261169433139219 21 1892 19 1711 17 741 16 2943
2875 3.3173366412177563 -0.15958208905916077 5.3372524772100984 124 85 66 0.64083571087202129 15 2451 19 1707 17 1686 16 2329
2872 4.9272160249115835 -1.1420803810971492 5.5627566760006379 107 81 61 1.5481997437468245 21 2723 22 4238 19 1667 18 1662
2871 2.6615090287100798 -1.851530412965525 8.4953640871294223 85 65 46 2.5995177252420092 22 1199 19 1660
2870 5.3732943041311474 -1.0570517854683994 4.8817861042403816 162 148 131 1.4089563707932915 19 1649 16 1534
2869 3.5676606938193358 -0.87098357932610559 5.5474204793600252 89 60 39 0.33840227694283109 22 1156 19 1644
2868 4.5857410485541941 -0.76848484847619525 5.1677751751305374 71 37 13 0.73876164662291244 21 2886 22 1823 19 1642 17 1562 16 3459
2867 3.8634201005530291 -0.79274729754300932 5.1350204990839963 87 47 22 1.6229765838256576 15 1535 19 1635 17 1566 12 936 10 1305 9 1362
2865 3.0090871200530627 -0.96866395762675428 5.5958203701374813 110 81 61 1.7455344988763706 21 1775 19 1616 17 530 18 754
2864 5.4899862769330037 -0.94468441079188104 5.6815852825169451 111 85 65 0.96816888597203177 19 1615 17 1575 18 2600 20 533 24 466
2862 3.6961202912395792 2.6674387798646402 6.6932389540171018 83 37 6 0.84590745796531364 23 1544 19 1599 18 2097
2861 6.0809055247042698 -0.015618013758560798 6.9064376949976021 117 91 73 1.4479837541218679 22 736 19 1598 17 2272 20 290
2860 3.2670495964279986 -1.607050425027966 6.2548017062787142 95 63 45 1.4581555606971526 22 2931 19 1595 18 1600
2859 5.7606837580329735 -0.28427207342370631 6.2236676060169316 85 48 26 0.40078585489561946 21 1251 19 1591 17 1655 18 2299
2858 3.317916800804686 -2.0514941027056235 6.0627701752935161 71 48 29 0.49741451807191367 22 3309 19 1580 18 1261
2857 6.0202442024342613 0.38712253334983709 7.1612234711221472 54 18 0 0.58386448939019031 23 1006 19 1578 24 911 20 669
2856 4.3252410368828533 -0.89289332783912556 5.3272145704482528 61 30 9 1.1403267317144192 15 4862 19 1575 17 1577 16 1486 13 1974 18 3732 14 1309 12 1359 10 1874 11 2968 9 2247 7 2747
2854 3.7738930465142446 2.0270952923825694 6.0926722536831504 122 79 56 0.74301581884590995 22 1456 19 1566 20 1449
2853 6.272307275512933 2.4261190521819374 7.8125735129909391 95 54 21 1.134115285031297 15 1989 19 1565 17 1308 18 1563 11 1072
2852 1.8186432617517652 2.0712280588624847 11.098001815809541 103 83 52 0.33834036188737537 21 1074 22 1078 19 1560 18 1465
2851 3.6459078617257648 1.5077735135911245 5.9379271294286156 98 53 25 0.54574151428338535 15 1243 19 1550 17 2209
2850 5.8351411553033774 2.5136285780247234 7.7995909841971676 53 17 0 0.21937469368551898 22 2339 19 1545
2849 4.3335680548055908 1.6815663288897091 6.1498177955319688 76 30 4 0.49907873386869123 15 1965 23 1475 19 1536
2848 3.8156989070770182 1.6107355209596135 6.060004560079304 99 54 23 0.52517063624957971 15 1964 19 1532 16 1251 20 784
